ply
format ascii 1.0
comment pointcloud saved from Realsense Viewer
element vertex 2273
property float32 x
property float32 y
property float32 z
property uchar red
property uchar green
property uchar blue
end_header
64 87 92 
-0.117615 0.0374146 -0.421631 
64 85 91 
-0.115967 0.0374451 -0.421875 
65 87 88 
-0.114319 0.0374756 -0.422119 
66 85 87 
-0.112671 0.0375061 -0.422363 
64 83 85 
-0.111023 0.0375366 -0.422607 
66 85 85 
-0.109314 0.0375671 -0.422852 
64 84 81 
-0.107605 0.0375671 -0.422852 
67 85 83 
-0.105896 0.0375977 -0.423096 
64 83 83 
-0.104309 0.0376282 -0.42334 
59 81 80 
-0.1026 0.0376587 -0.423584 
59 81 80 
-0.100891 0.0376587 -0.423584 
58 80 81 
-0.0991821 0.0376892 -0.423828 
60 77 80 
-0.0974731 0.0377197 -0.423828 
59 73 77 
-0.0957642 0.0377197 -0.424072 
58 72 76 
-0.0939941 0.0377502 -0.424072 
61 73 75 
-0.0917969 0.0375671 -0.421875 
62 70 69 
-0.0857544 0.0357666 -0.401611 
132 113 57 
-0.0840454 0.0357666 -0.401611 
141 123 62 
-0.0823975 0.0357361 -0.401367 
144 126 63 
-0.0806274 0.0357361 -0.401123 
144 125 69 
-0.0789185 0.0357056 -0.400879 
144 125 69 
-0.0771484 0.035675 -0.400391 
143 124 68 
-0.0755005 0.035675 -0.400146 
146 125 65 
-0.0737915 0.0356445 -0.399902 
146 124 58 
-0.0721436 0.0356445 -0.399902 
142 120 54 
-0.0704956 0.0356445 -0.399902 
146 121 58 
-0.0688477 0.035675 -0.399902 
143 118 55 
-0.0671997 0.0357056 -0.400391 
142 117 54 
-0.0656128 0.0357361 -0.400635 
142 115 52 
-0.0640259 0.0357666 -0.401123 
140 111 49 
-0.0624084 0.0358276 -0.401367 
138 109 47 
-0.0608215 0.0358582 -0.401855 
135 106 44 
-0.0592346 0.0359192 -0.402344 
121 93 35 
-0.0576477 0.0359802 -0.403076 
108 76 31 
-0.0560303 0.0360413 -0.403564 
68 35 0 
-0.0544434 0.0361023 -0.404297 
108 78 30 
-0.0528564 0.0361633 -0.405029 
110 80 23 
-0.051239 0.0362244 -0.405518 
109 80 16 
-0.0495911 0.0362549 -0.406006 
110 81 19 
-0.0479431 0.0362854 -0.406494 
99 68 16 
-0.0462952 0.0363464 -0.406982 
109 81 23 
-0.0446777 0.0364075 -0.407715 
106 80 20 
-0.0429688 0.0364075 -0.407471 
105 79 21 
-0.0412903 0.036438 -0.407959 
104 78 20 
-0.039917 0.0367432 -0.411133 
102 74 16 
-0.0382385 0.0368042 -0.411865 
105 75 16 
-0.0365601 0.0368347 -0.412354 
104 74 15 
-0.0347595 0.0367737 -0.411621 
101 72 17 
-0.0330811 0.0368347 -0.412109 
98 71 20 
-0.0313721 0.0368652 -0.412354 
87 59 13 
-0.029892 0.0371399 -0.415527 
89 63 19 
-0.0281219 0.0371399 -0.415283 
88 64 19 
-0.0263519 0.0371094 -0.415039 
75 53 14 
-0.0245819 0.0370483 -0.414551 
74 49 11 
-0.0228119 0.0370178 -0.414063 
74 49 13 
-0.0210571 0.0369873 -0.413574 
79 54 18 
-0.0193024 0.0369568 -0.413086 
79 54 18 
-0.0175476 0.0368958 -0.412598 
87 62 24 
-0.0157928 0.0368347 -0.411865 
101 72 29 
-0.0139999 0.0366516 -0.410156 
100 72 24 
-0.0122604 0.0366211 -0.409668 
102 75 22 
-0.0105286 0.0365906 -0.409424 
102 75 22 
-0.00880432 0.0365601 -0.408936 
107 78 23 
-0.00709152 0.0365906 -0.40918 
111 82 27 
-0.00536728 0.0365601 -0.408936 
111 83 25 
-0.00364494 0.036499 -0.408203 
114 86 28 
-0.00192833 0.0364685 -0.407715 
115 87 27 
-0.000214696 0.0364075 -0.407227 
114 87 24 
0.00149536 0.0364075 -0.406982 
117 88 26 
0.00320244 0.0363464 -0.406738 
119 90 28 
0.0049057 0.0363159 -0.40625 
120 88 23 
0.00661469 0.0363464 -0.406494 
127 96 28 
0.00830078 0.0362549 -0.405518 
130 99 31 
0.00998688 0.0361938 -0.405029 
128 97 29 
0.011673 0.0361328 -0.404297 
132 101 31 
0.0133438 0.0360718 -0.40332 
133 100 31 
0.0150299 0.0360413 -0.40332 
131 98 29 
0.0166931 0.0359802 -0.402588 
134 102 28 
0.0183563 0.0359192 -0.4021 
142 110 34 
0.0200195 0.0358887 -0.401611 
150 119 40 
0.0216827 0.0358582 -0.401123 
152 122 45 
0.0233307 0.0357971 -0.400635 
151 123 52 
0.0249939 0.0357666 -0.400391 
149 121 50 
0.0266418 0.0357361 -0.399902 
149 122 48 
0.0282898 0.0357056 -0.399414 
149 122 48 
0.029953 0.035675 -0.399414 
152 124 53 
0.0315857 0.0356445 -0.39917 
153 125 54 
0.0332642 0.0356445 -0.398926 
149 121 52 
0.0349426 0.0356445 -0.398926 
150 124 54 
0.0365906 0.035614 -0.398926 
149 123 53 
0.038269 0.0356445 -0.398926 
144 118 48 
0.0399475 0.0356445 -0.39917 
138 110 41 
0.0415955 0.035614 -0.398926 
132 104 35 
0.0433044 0.0356445 -0.39917 
136 108 39 
0.0449829 0.0356445 -0.399414 
134 108 38 
0.0466614 0.035675 -0.399658 
123 98 33 
0.0483398 0.035675 -0.399658 
129 109 42 
0.0500183 0.035675 -0.399658 
129 111 48 
0.0517273 0.0357056 -0.400146 
125 108 42 
0.0533752 0.035675 -0.399902 
123 103 36 
0.0550232 0.0356445 -0.399658 
123 103 36 
0.0625 0.0393372 -0.441162 
126 106 39 
0.0643311 0.0393372 -0.441162 
110 92 42 
0.065918 0.0391846 -0.439453 
67 75 62 
0.0678101 0.0391846 -0.439697 
59 74 71 
0.0696411 0.0392151 -0.439941 
56 73 76 
0.0714722 0.0392151 -0.439941 
59 78 80 
0.0733032 0.0392151 -0.439941 
57 79 82 
0.0751953 0.0392151 -0.440186 
56 78 81 
0.0769653 0.0392151 -0.440186 
60 82 85 
0.0788574 0.0392151 -0.440186 
59 81 84 
0.0806885 0.0392151 -0.44043 
59 81 84 
0.0825195 0.0392151 -0.440674 
60 82 85 
0.0844116 0.0392456 -0.440918 
59 83 85 
0.0862427 0.0392456 -0.441162 
58 82 84 
0.0880737 0.0392456 -0.441162 
59 83 85 
0.0899048 0.0392456 -0.441406 
58 81 86 
0.0917969 0.0392456 -0.441406 
58 81 86 
0.0936279 0.0392761 -0.44165 
57 82 89 
0.095459 0.0392761 -0.44165 
59 82 89 
0.09729 0.0392761 -0.441895 
58 81 88 
0.0991211 0.0392761 -0.442139 
58 81 86 
0.101013 0.0393066 -0.442383 
62 81 85 
0.102844 0.0392761 -0.442383 
60 79 81 
0.104675 0.0393066 -0.442627 
61 80 82 
0.106506 0.0393066 -0.442627 
59 81 84 
0.108398 0.0393372 -0.443115 
58 82 84 
0.110291 0.0393372 -0.443359 
58 80 83 
0.112122 0.0393372 -0.443359 
60 82 85 
0.113953 0.0393372 -0.443604 
59 81 84 
0.115845 0.0393677 -0.443848 
61 83 86 
0.117676 0.0393677 -0.443848 
62 84 87 
0.119507 0.0393677 -0.444092 
62 84 87 
0.121338 0.0393677 -0.444336 
57 81 83 
0.123169 0.0393677 -0.444336 
58 82 84 
0.125 0.0393677 -0.44458 
60 84 86 
0.126831 0.0393982 -0.444824 
60 84 84 
0.128662 0.0393982 -0.445068 
56 82 82 
0.130493 0.0393982 -0.445313 
59 83 83 
0.132446 0.0393982 -0.445557 
59 81 84 
0.134155 0.0393677 -0.445313 
58 82 84 
0.135986 0.0393677 -0.445557 
63 87 87 
0.137695 0.0393372 -0.445313 
61 83 84 
0.195313 0.0516968 -0.585938 
61 84 91 
0.197632 0.0516968 -0.585938 
87 100 109 
0.199951 0.0516663 -0.585938 
122 122 124 
0.201782 0.0515137 -0.584473 
118 118 122 
0.204102 0.0515137 -0.584961 
125 125 127 
0.206299 0.0514832 -0.584473 
122 125 126 
0.208618 0.0514832 -0.584473 
115 121 121 
0.211426 0.0515747 -0.585938 
120 126 126 
0.213135 0.0514221 -0.584473 
117 120 121 
0.215576 0.0514221 -0.584473 
122 128 128 
0.217896 0.0513916 -0.584961 
122 128 128 
0.220337 0.0514221 -0.585449 
121 124 123 
0.223022 0.0514832 -0.585938 
128 128 128 
0.226196 0.0516968 -0.588379 
126 126 128 
0.228638 0.0516968 -0.588867 
124 127 128 
0.230225 0.0515137 -0.586914 
125 133 132 
0.232544 0.0515137 -0.587402 
121 132 130 
0.235107 0.0515442 -0.587891 
121 128 132 
0.237427 0.0515442 -0.588379 
117 124 128 
0.239624 0.0515137 -0.587891 
126 133 137 
0.242188 0.0515442 -0.588379 
124 131 135 
0.244629 0.0515442 -0.588867 
120 127 131 
0.24707 0.0515747 -0.589355 
121 129 128 
0.249512 0.0516052 -0.589844 
120 126 124 
0.251953 0.0516052 -0.590332 
121 127 127 
0.254395 0.0516663 -0.591309 
118 124 126 
0.256348 0.0515442 -0.590332 
121 127 129 
0.258789 0.0516052 -0.59082 
125 131 133 
0.26123 0.0516052 -0.591309 
127 133 133 
0.263916 0.0516357 -0.592285 
120 127 121 
0.26709 0.0518188 -0.594238 
129 133 126 
0.268799 0.0516968 -0.593262 
123 125 116 
0.27124 0.0516968 -0.59375 
128 131 130 
0.273682 0.0517273 -0.594238 
126 132 130 
0.276123 0.0517273 -0.594727 
126 129 130 
0.278564 0.0517578 -0.595215 
126 132 132 
0.280762 0.0516968 -0.594727 
124 130 132 
0.283203 0.0517273 -0.595215 
125 124 131 
0.285889 0.0517883 -0.596191 
125 125 129 
0.287842 0.0517273 -0.596191 
123 126 129 
0.290283 0.0517578 -0.59668 
127 133 133 
0.292969 0.0518188 -0.597656 
120 126 126 
0.29541 0.0518188 -0.598145 
121 127 127 
0.297852 0.0518494 -0.598633 
121 127 127 
0.300293 0.0518494 -0.599121 
121 127 127 
0.30249 0.0518188 -0.599121 
121 127 127 
0.304932 0.0518494 -0.599609 
121 127 127 
0.307373 0.0518494 -0.600098 
121 127 127 
0.30957 0.0518188 -0.600098 
121 127 127 
0.312256 0.0518799 -0.601074 
121 127 127 
0.314209 0.0518188 -0.600586 
121 127 127 
0.316162 0.0517578 -0.600098 
121 127 127 
0.319336 0.0518799 -0.602051 
121 127 127 
0.321289 0.0518188 -0.601563 
121 127 127 
0.323486 0.0518188 -0.602051 
121 127 127 
0.326172 0.0518494 -0.603027 
121 127 127 
0.328857 0.0518799 -0.603516 
121 127 127 
0.330811 0.0518494 -0.603516 
121 127 127 
0.333496 0.0519104 -0.604492 
121 127 127 
0.335938 0.0519104 -0.60498 
121 127 127 
0.338379 0.0519104 -0.605469 
121 127 127 
0.340576 0.0519409 -0.605957 
121 127 127 
0.343262 0.0519714 -0.606445 
121 127 127 
0.345703 0.0519714 -0.606934 
121 127 127 
0.3479 0.0519714 -0.607422 
121 127 127 
0.350098 0.0519104 -0.607422 
121 127 127 
0.352295 0.0519104 -0.607422 
121 127 127 
0.354492 0.0518799 -0.60791 
121 127 127 
0.356445 0.0518494 -0.60791 
121 127 127 
0.358643 0.0518188 -0.607422 
121 127 127 
0.36084 0.0517883 -0.60791 
121 127 127 
0.362793 0.0517578 -0.60791 
121 127 127 
0.364746 0.0516968 -0.607422 
121 127 127 
0.366943 0.0516663 -0.607422 
121 127 127 
0.368896 0.0516357 -0.607422 
121 127 127 
0.370605 0.0515442 -0.606934 
121 127 127 
0.372803 0.0515442 -0.607422 
121 127 127 
0.375 0.0515137 -0.607422 
121 127 127 
0.378662 0.0517273 -0.610352 
121 127 127 
0.380859 0.0516968 -0.610352 
121 127 127 
0.390137 0.0526428 -0.62207 
121 127 127 
-0.289063 0.0440063 -0.53418 
136 142 140 
-0.287109 0.0440063 -0.53418 
133 141 138 
-0.285156 0.0440369 -0.53418 
133 141 138 
-0.283203 0.0440674 -0.53418 
131 134 135 
-0.281494 0.0440979 -0.53418 
130 138 137 
-0.279541 0.0441284 -0.534668 
131 137 137 
-0.277832 0.0441895 -0.535156 
128 134 132 
-0.275879 0.04422 -0.535156 
131 137 137 
-0.273926 0.0442505 -0.535156 
130 133 132 
-0.271973 0.044281 -0.535156 
134 137 136 
-0.27002 0.0443115 -0.535156 
135 135 135 
-0.268066 0.044342 -0.535156 
130 134 129 
-0.266113 0.0443726 -0.535645 
132 139 133 
-0.264404 0.0444031 -0.535645 
129 136 130 
-0.262207 0.0444336 -0.535645 
131 139 136 
-0.260498 0.0444641 -0.535645 
125 133 130 
-0.258545 0.0444946 -0.535645 
128 134 132 
-0.256592 0.0445251 -0.536133 
131 132 128 
-0.254639 0.0445557 -0.536133 
131 132 128 
-0.252686 0.0445862 -0.536133 
128 128 128 
-0.250488 0.0446167 -0.536133 
130 130 132 
-0.248657 0.0446472 -0.536133 
125 125 125 
-0.246704 0.0446777 -0.536621 
124 128 123 
-0.244873 0.0447083 -0.536621 
122 126 121 
-0.24292 0.0447388 -0.537109 
121 125 118 
-0.240845 0.0447693 -0.537109 
126 128 117 
-0.238892 0.0448303 -0.537109 
126 127 116 
-0.237061 0.0448608 -0.537598 
127 128 117 
-0.235107 0.0448914 -0.537598 
128 129 123 
-0.233154 0.0449524 -0.538086 
122 123 119 
-0.231079 0.0449829 -0.538086 
122 123 117 
-0.229126 0.0450134 -0.538574 
125 125 119 
-0.227295 0.0450745 -0.539063 
125 125 119 
-0.22522 0.045105 -0.539063 
121 122 116 
-0.223267 0.0451355 -0.539063 
90 98 99 
-0.221191 0.045166 -0.539063 
79 91 95 
-0.165283 0.0347595 -0.415039 
67 89 90 
-0.163818 0.0348206 -0.415283 
66 88 89 
-0.162231 0.0348511 -0.415527 
67 89 90 
-0.160645 0.0348511 -0.415527 
66 88 89 
-0.159058 0.0348816 -0.415771 
68 90 91 
-0.157471 0.0349121 -0.415771 
64 86 85 
-0.155884 0.0349426 -0.416016 
67 89 88 
-0.154297 0.0349426 -0.416016 
65 87 88 
-0.152832 0.0349731 -0.41626 
63 87 87 
-0.151245 0.0350342 -0.416504 
63 89 89 
-0.149658 0.0350342 -0.416748 
63 89 89 
-0.148071 0.0350647 -0.416992 
62 91 90 
-0.146362 0.0350952 -0.416992 
65 89 89 
-0.144897 0.0351257 -0.417236 
61 87 87 
-0.143311 0.0351563 -0.41748 
62 88 90 
-0.141724 0.0351868 -0.417725 
63 89 91 
-0.140137 0.0352173 -0.417969 
65 89 87 
-0.13855 0.0352478 -0.418213 
66 90 88 
-0.136841 0.0352783 -0.418457 
66 88 87 
-0.135254 0.0353088 -0.418701 
65 87 86 
-0.133667 0.0353394 -0.418945 
62 84 85 
-0.13208 0.0353699 -0.419189 
64 86 87 
-0.130493 0.0353699 -0.419189 
60 84 86 
-0.128906 0.0354004 -0.419434 
64 85 93 
-0.127197 0.0354309 -0.419678 
64 85 93 
-0.12561 0.0354614 -0.419922 
65 86 94 
-0.123962 0.0354919 -0.420166 
64 87 92 
-0.122375 0.0355225 -0.42041 
65 88 93 
-0.120789 0.035553 -0.420654 
60 83 88 
-0.11908 0.0355835 -0.420898 
59 85 87 
-0.117432 0.035614 -0.420898 
66 90 92 
-0.115784 0.035614 -0.421143 
63 87 89 
-0.114136 0.0356445 -0.421387 
63 87 87 
-0.112488 0.035675 -0.421631 
60 82 83 
-0.110779 0.0357056 -0.421631 
61 85 85 
-0.109131 0.0357361 -0.421875 
64 86 85 
-0.107422 0.0357361 -0.421875 
60 82 81 
-0.105713 0.0357666 -0.422119 
57 79 80 
-0.104126 0.0357971 -0.422607 
58 80 81 
-0.102356 0.0358276 -0.422607 
59 78 78 
-0.100647 0.0358276 -0.422852 
59 78 78 
-0.098938 0.0358582 -0.422852 
58 78 75 
-0.097229 0.0358582 -0.423096 
56 74 72 
-0.0955811 0.0359192 -0.42334 
58 73 72 
-0.0938721 0.0359192 -0.42334 
60 73 72 
-0.0888672 0.0346375 -0.408203 
59 67 64 
-0.0857544 0.0340881 -0.401611 
131 113 52 
-0.0841064 0.0340881 -0.401611 
140 120 53 
-0.0823975 0.0340881 -0.401367 
143 123 56 
-0.0806274 0.0340576 -0.401123 
142 123 65 
-0.0789185 0.0340271 -0.400635 
144 122 65 
-0.0772095 0.0339966 -0.400391 
145 123 66 
-0.0755005 0.0339966 -0.400391 
142 119 60 
-0.0738525 0.0339966 -0.400146 
143 117 59 
-0.0721436 0.0339966 -0.399902 
143 115 55 
-0.0705566 0.0339966 -0.400146 
143 116 53 
-0.0689087 0.0340271 -0.400391 
141 114 47 
-0.0672607 0.0340576 -0.400635 
141 114 47 
-0.0656738 0.0340881 -0.400879 
143 117 47 
-0.0640869 0.0341187 -0.401367 
138 111 44 
-0.0624695 0.0341797 -0.401855 
134 107 42 
-0.0609131 0.0342102 -0.402344 
121 96 31 
-0.0593262 0.0342712 -0.403076 
117 89 29 
-0.0577087 0.0343323 -0.403564 
109 80 25 
-0.0561218 0.0343933 -0.404053 
91 64 11 
-0.0545044 0.0344543 -0.404785 
107 80 27 
-0.0529175 0.0345154 -0.405518 
109 83 23 
-0.0512695 0.0345459 -0.406006 
109 84 21 
-0.0496521 0.0346069 -0.406494 
108 80 20 
-0.0480347 0.0346375 -0.406982 
72 40 0 
-0.0463867 0.0346985 -0.407715 
98 69 26 
-0.0447388 0.0347595 -0.408203 
96 72 18 
-0.0433044 0.0349731 -0.410645 
98 74 22 
-0.0415649 0.0349426 -0.4104 
78 52 10 
-0.0397949 0.0349426 -0.410156 
65 43 4 
-0.0386047 0.0354004 -0.415771 
54 31 0 
-0.0368958 0.0354309 -0.416016 
68 49 22 
-0.0354614 0.0357666 -0.419922 
43 26 8 
-0.0342407 0.0363159 -0.42627 
38 21 3 
-0.0324707 0.0363464 -0.426514 
39 22 4 
-0.0307159 0.036377 -0.427002 
63 52 27 
-0.0289307 0.036377 -0.427246 
44 33 8 
-0.0271301 0.036377 -0.427246 
41 32 13 
-0.0253448 0.036377 -0.427246 
36 27 10 
-0.0235443 0.0364075 -0.427246 
30 21 12 
-0.021759 0.0364075 -0.427246 
57 45 25 
-0.0199585 0.036377 -0.427002 
56 46 16 
-0.018158 0.036377 -0.427002 
52 41 16 
-0.0163422 0.0363464 -0.426514 
51 38 14 
-0.0142746 0.0356445 -0.418213 
39 26 4 
-0.0123749 0.0352173 -0.41333 
46 27 12 
-0.0106354 0.0352173 -0.413086 
61 36 16 
-0.00888824 0.0351868 -0.412842 
68 42 13 
-0.00714874 0.0351563 -0.412354 
77 50 17 
-0.00536728 0.0348511 -0.408936 
98 68 22 
-0.00365257 0.0348511 -0.40918 
109 80 25 
-0.0019331 0.0348511 -0.408691 
115 86 31 
-0.000214815 0.03479 -0.408203 
113 85 27 
0.00149918 0.0347595 -0.407959 
117 90 25 
0.00321007 0.034729 -0.407471 
117 88 22 
0.00492096 0.034729 -0.407471 
118 88 15 
0.0066185 0.0346375 -0.406738 
123 92 22 
0.00831604 0.0346069 -0.406006 
125 97 26 
0.0100021 0.0345459 -0.405518 
131 100 30 
0.0116882 0.0344849 -0.404785 
132 102 29 
0.0133667 0.0344238 -0.404053 
133 101 29 
0.0150375 0.0343933 -0.403564 
126 94 22 
0.0166931 0.0343018 -0.402832 
134 102 30 
0.0183716 0.0342712 -0.402344 
138 106 32 
0.0200348 0.0342102 -0.401855 
145 113 37 
0.0216827 0.0341797 -0.401367 
148 116 42 
0.0233459 0.0341187 -0.400879 
152 121 51 
0.0249939 0.0340881 -0.400391 
149 121 50 
0.0266418 0.0340576 -0.399658 
151 125 55 
0.0282898 0.0339966 -0.399414 
151 125 55 
0.0299225 0.0339661 -0.398926 
151 123 54 
0.0315857 0.0339355 -0.398682 
153 125 56 
0.0332336 0.0339355 -0.398438 
153 125 54 
0.0348816 0.0339355 -0.398438 
147 119 48 
0.0365295 0.033905 -0.398438 
150 124 54 
0.038208 0.033905 -0.398438 
132 106 34 
0.0398865 0.033905 -0.398438 
142 116 46 
0.0415649 0.033905 -0.398438 
136 110 40 
0.0432129 0.033905 -0.398438 
138 109 43 
0.0448914 0.033905 -0.398682 
135 108 41 
0.0466003 0.0339355 -0.398926 
129 104 37 
0.0482788 0.0339355 -0.398926 
130 108 44 
0.0499573 0.0339355 -0.39917 
127 107 42 
0.0516052 0.0339355 -0.39917 
125 105 40 
0.0533142 0.0339661 -0.399414 
127 107 40 
0.0549622 0.0339355 -0.39917 
124 101 40 
0.0566101 0.0339355 -0.39917 
118 96 43 
0.06604 0.037384 -0.439941 
108 92 46 
0.067749 0.037323 -0.439453 
91 89 70 
0.0695801 0.037323 -0.439453 
61 73 75 
0.0714111 0.037323 -0.439453 
56 74 81 
0.0732422 0.037323 -0.439453 
60 79 83 
0.0750732 0.037323 -0.439453 
59 78 82 
0.0768433 0.0372925 -0.439453 
61 80 84 
0.0786743 0.037323 -0.439453 
62 81 83 
0.0805054 0.0372925 -0.439453 
62 81 83 
0.0823364 0.0372925 -0.439697 
59 81 84 
0.0842285 0.037323 -0.439941 
58 80 83 
0.0860596 0.037323 -0.440186 
58 80 83 
0.0878906 0.037323 -0.440186 
60 81 87 
0.0897827 0.0373535 -0.44043 
60 81 87 
0.0916138 0.0373535 -0.440674 
60 81 89 
0.0934448 0.0373535 -0.440674 
61 84 91 
0.0952759 0.0373535 -0.440918 
59 82 89 
0.0971069 0.0373535 -0.441162 
60 83 90 
0.098999 0.037384 -0.441406 
59 83 85 
0.100769 0.0373535 -0.441162 
60 82 81 
0.1026 0.037384 -0.441406 
64 83 83 
0.104492 0.037384 -0.44165 
61 83 82 
0.106323 0.037384 -0.441895 
59 83 85 
0.108215 0.037384 -0.442139 
55 81 83 
0.110046 0.0374146 -0.442383 
58 83 88 
0.111938 0.0374146 -0.442627 
59 85 87 
0.11377 0.0374146 -0.442627 
56 82 84 
0.115601 0.0374146 -0.442871 
57 82 87 
0.117432 0.0374146 -0.442871 
59 84 89 
0.119202 0.0374146 -0.443115 
55 81 81 
0.121094 0.0374451 -0.443359 
52 83 83 
0.122925 0.0374451 -0.443604 
53 84 84 
0.124756 0.0374451 -0.443604 
57 82 87 
0.126587 0.0374756 -0.443848 
57 82 87 
0.128418 0.0374756 -0.444092 
61 87 89 
0.130249 0.0374756 -0.444336 
60 84 86 
0.132202 0.0374756 -0.44458 
55 81 83 
0.133911 0.0374756 -0.44458 
58 84 86 
0.135742 0.0374756 -0.44458 
59 85 87 
0.137451 0.0374451 -0.44458 
59 83 85 
0.195557 0.0499573 -0.59375 
63 87 87 
0.195313 0.0492859 -0.585938 
64 88 88 
0.196411 0.0489807 -0.58252 
80 102 105 
0.19873 0.0489502 -0.58252 
119 125 125 
0.201172 0.0489502 -0.58252 
117 120 121 
0.203369 0.0489502 -0.58252 
122 128 128 
0.206055 0.0490112 -0.583496 
117 123 125 
0.208374 0.0489807 -0.583496 
121 124 125 
0.210571 0.0489502 -0.583496 
120 123 124 
0.213013 0.0489807 -0.583984 
116 119 120 
0.215332 0.0489807 -0.583984 
125 125 127 
0.217773 0.0489807 -0.584473 
123 126 127 
0.220215 0.0489807 -0.584961 
121 124 125 
0.222778 0.0490417 -0.585449 
127 130 131 
0.224854 0.0489807 -0.584961 
119 119 121 
0.227295 0.0489807 -0.585449 
125 125 125 
0.22998 0.0490723 -0.586426 
128 129 125 
0.2323 0.0490723 -0.586914 
121 127 129 
0.234863 0.0491028 -0.587402 
122 128 130 
0.236938 0.0490417 -0.586914 
123 131 132 
0.23938 0.0490417 -0.587402 
122 134 136 
0.241821 0.0490723 -0.587891 
120 132 134 
0.244263 0.0490723 -0.587891 
120 128 127 
0.246704 0.0491028 -0.588867 
120 126 126 
0.249268 0.0491333 -0.589355 
120 123 124 
0.251465 0.0491333 -0.589844 
124 127 126 
0.253906 0.0491333 -0.589844 
121 127 125 
0.256104 0.0490723 -0.589355 
122 128 128 
0.258545 0.0491333 -0.590332 
126 131 136 
0.26123 0.0491638 -0.59082 
132 137 142 
0.263672 0.0491943 -0.591309 
119 124 129 
0.265625 0.0491028 -0.59082 
126 137 133 
0.268311 0.0491638 -0.591797 
120 126 124 
0.270508 0.0491333 -0.591797 
129 132 131 
0.272949 0.0491638 -0.592285 
124 130 128 
0.275391 0.0491638 -0.592773 
117 122 127 
0.277588 0.0491638 -0.592773 
124 132 133 
0.280029 0.0491943 -0.59375 
119 127 128 
0.282471 0.0491943 -0.594238 
124 127 126 
0.284668 0.0491638 -0.59375 
124 128 123 
0.287354 0.0492249 -0.594727 
124 128 123 
0.289551 0.0492249 -0.595215 
126 135 128 
0.291992 0.0492249 -0.595215 
119 126 120 
0.294189 0.0491943 -0.595703 
120 127 121 
0.296631 0.0492249 -0.595703 
120 127 121 
0.299072 0.0492249 -0.596191 
120 127 121 
0.301514 0.0492249 -0.59668 
120 127 121 
0.304199 0.0493164 -0.598145 
120 127 121 
0.306641 0.0493164 -0.598633 
120 127 121 
0.308838 0.0492859 -0.598633 
120 127 121 
0.311523 0.0493469 -0.599121 
120 127 121 
0.313477 0.0492859 -0.599121 
120 127 121 
0.315918 0.0492859 -0.599609 
120 127 121 
0.317383 0.0491943 -0.598633 
120 127 121 
0.320313 0.0492554 -0.599609 
120 127 121 
0.323242 0.0493774 -0.601563 
120 127 121 
0.325439 0.0493469 -0.601074 
120 127 121 
0.327393 0.0492859 -0.601074 
120 127 121 
0.330078 0.0493164 -0.602051 
120 127 121 
0.331543 0.0492249 -0.601074 
120 127 121 
0.334473 0.0492859 -0.602539 
120 127 121 
0.338135 0.0494995 -0.60498 
120 127 121 
0.340576 0.0494995 -0.605469 
120 127 121 
0.343018 0.04953 -0.606445 
120 127 121 
0.345459 0.04953 -0.606445 
120 127 121 
0.347656 0.04953 -0.606934 
120 127 121 
0.349854 0.0494995 -0.606934 
120 127 121 
0.352051 0.049469 -0.606934 
120 127 121 
0.354004 0.0494385 -0.606934 
120 127 121 
0.356201 0.049408 -0.606934 
120 127 121 
0.358398 0.049408 -0.607422 
120 127 121 
0.358887 0.0491638 -0.604492 
120 127 121 
0.360596 0.0490723 -0.604004 
120 127 121 
0.363281 0.0491028 -0.60498 
120 127 121 
0.365234 0.0490723 -0.60498 
120 127 121 
0.367432 0.0490417 -0.60498 
120 127 121 
0.370361 0.0491333 -0.606445 
120 127 121 
0.372559 0.0491028 -0.606445 
120 127 121 
0.374756 0.0491028 -0.606934 
120 127 121 
0.376221 0.0489807 -0.605957 
120 127 121 
0.37793 0.0489197 -0.605469 
120 127 121 
0.390381 0.0502319 -0.62207 
120 127 121 
-0.288818 0.0418091 -0.533691 
138 137 137 
-0.286621 0.0418091 -0.533203 
133 133 135 
-0.284424 0.0417786 -0.532715 
138 138 140 
-0.282471 0.0417786 -0.532715 
133 136 135 
-0.280518 0.0418091 -0.532715 
131 134 133 
-0.278564 0.0418396 -0.532715 
133 139 137 
-0.276611 0.0418701 -0.532715 
131 135 130 
-0.274658 0.0419006 -0.532715 
130 134 129 
-0.272949 0.0419312 -0.532715 
136 136 136 
-0.270996 0.0419617 -0.532715 
135 135 139 
-0.269043 0.0419922 -0.533203 
133 133 137 
-0.26709 0.0420227 -0.533203 
129 132 135 
-0.265381 0.0420532 -0.533691 
133 139 141 
-0.263428 0.0421143 -0.533691 
125 131 131 
-0.261719 0.0421753 -0.534668 
127 133 133 
-0.26001 0.0422058 -0.534668 
127 133 131 
-0.258057 0.0422363 -0.534668 
129 135 133 
-0.256104 0.0422668 -0.535156 
126 133 127 
-0.25415 0.0422974 -0.535156 
136 137 133 
-0.252197 0.0423279 -0.535156 
129 129 125 
-0.250244 0.0423584 -0.535156 
128 132 127 
-0.248291 0.0423889 -0.535645 
126 128 119 
-0.246338 0.0424194 -0.535645 
126 131 121 
-0.244385 0.04245 -0.535645 
124 126 117 
-0.242432 0.0424805 -0.536133 
125 126 120 
-0.240479 0.042511 -0.536133 
125 126 120 
-0.238525 0.0425415 -0.536133 
125 126 120 
-0.236572 0.0426025 -0.536621 
128 129 125 
-0.234619 0.0426331 -0.536621 
124 125 121 
-0.232788 0.0426636 -0.537109 
122 123 119 
-0.230713 0.0426941 -0.537109 
121 122 116 
-0.22876 0.0427551 -0.537598 
125 127 118 
-0.226807 0.0427856 -0.538086 
118 120 111 
-0.224854 0.0428162 -0.538086 
117 120 119 
-0.222656 0.0428162 -0.538086 
80 91 100 
-0.220947 0.0429077 -0.538574 
70 89 93 
-0.166016 0.0328979 -0.412842 
65 89 89 
-0.164917 0.0329895 -0.414063 
66 90 88 
-0.163452 0.0330505 -0.414551 
67 91 89 
-0.161987 0.0330811 -0.414795 
65 91 91 
-0.1604 0.0331116 -0.414795 
61 89 93 
-0.158813 0.0331116 -0.415039 
63 89 91 
-0.157227 0.0331421 -0.415039 
63 89 91 
-0.15564 0.0331726 -0.415283 
61 87 87 
-0.154053 0.0331726 -0.415283 
64 88 88 
-0.152466 0.0332031 -0.415527 
65 89 87 
-0.150879 0.0332336 -0.415527 
62 88 86 
-0.149414 0.0332642 -0.416016 
61 87 85 
-0.147827 0.0332947 -0.41626 
63 89 87 
-0.146118 0.0332947 -0.41626 
63 87 85 
-0.144653 0.0333252 -0.416504 
63 87 85 
-0.143066 0.0333557 -0.416748 
63 86 91 
-0.141479 0.0333862 -0.416992 
64 88 90 
-0.139893 0.0334167 -0.417236 
66 90 90 
-0.138306 0.0334473 -0.417236 
63 87 85 
-0.136719 0.0334778 -0.41748 
66 90 88 
-0.135132 0.0335083 -0.417725 
64 89 84 
-0.133423 0.0335388 -0.418213 
63 88 83 
-0.131836 0.0335693 -0.418457 
61 85 83 
-0.130249 0.0335999 -0.418457 
60 84 84 
-0.128662 0.0336304 -0.418701 
66 89 94 
-0.126953 0.0336304 -0.418945 
64 87 92 
-0.125366 0.0336609 -0.419189 
63 87 89 
-0.123779 0.0336914 -0.419434 
64 86 89 
-0.122131 0.0337219 -0.419434 
64 83 87 
-0.120544 0.0337524 -0.419922 
67 84 89 
-0.118835 0.033783 -0.419922 
65 87 90 
-0.117188 0.033783 -0.420166 
64 86 89 
-0.11554 0.0338135 -0.42041 
65 87 90 
-0.113892 0.033844 -0.420654 
62 84 87 
-0.112244 0.0338745 -0.420898 
63 87 89 
-0.110535 0.0338745 -0.420654 
60 84 86 
-0.108887 0.033905 -0.420898 
62 83 89 
-0.107178 0.033905 -0.421143 
62 81 85 
-0.10553 0.0339355 -0.421387 
60 79 81 
-0.103882 0.0339661 -0.421631 
54 76 77 
-0.102173 0.0339966 -0.421631 
60 82 83 
-0.100464 0.0339966 -0.421875 
59 78 80 
-0.0987549 0.0340271 -0.421875 
59 76 77 
-0.0971069 0.0340576 -0.422119 
56 70 74 
-0.0953979 0.0340576 -0.422363 
61 73 75 
-0.093689 0.0340881 -0.422363 
61 72 72 
-0.0888062 0.0329285 -0.408203 
59 68 61 
-0.0857544 0.0324097 -0.401611 
128 114 54 
-0.0841064 0.0324097 -0.401611 
136 118 55 
-0.0823975 0.0324097 -0.401367 
138 120 57 
-0.0806885 0.0323792 -0.401123 
142 124 61 
-0.0789185 0.0323486 -0.400879 
141 120 58 
-0.0772095 0.0323486 -0.400635 
145 122 61 
-0.0755005 0.0323181 -0.400391 
142 116 56 
-0.0738525 0.0323486 -0.400391 
144 116 56 
-0.0722046 0.0323486 -0.400391 
141 114 51 
-0.0705566 0.0323486 -0.400391 
141 114 51 
-0.0689697 0.0323792 -0.400635 
139 112 49 
-0.0673218 0.0324097 -0.400879 
138 111 48 
-0.0657349 0.0324402 -0.401367 
136 111 46 
-0.0641479 0.0324707 -0.401855 
125 97 37 
-0.0625 0.0325012 -0.4021 
118 88 31 
-0.0609741 0.0325623 -0.402832 
114 84 25 
-0.0593872 0.0326233 -0.40332 
114 84 25 
-0.0577698 0.0326843 -0.403809 
111 83 23 
-0.0561829 0.0327454 -0.404785 
107 81 21 
-0.0545654 0.0327759 -0.405273 
108 82 22 
-0.0529175 0.0328064 -0.405518 
104 81 20 
-0.0513306 0.0328674 -0.40625 
97 76 14 
-0.0496826 0.0328979 -0.406738 
98 76 19 
-0.048645 0.0333862 -0.412354 
90 67 19 
-0.0469666 0.0334167 -0.412842 
66 41 5 
-0.0453186 0.0334473 -0.41333 
57 35 7 
-0.0436096 0.0334778 -0.413574 
39 22 6 
-0.0424194 0.033905 -0.418945 
36 24 8 
-0.0412598 0.0344238 -0.425049 
33 24 7 
-0.0395203 0.0344543 -0.425537 
59 52 35 
-0.0377808 0.0344849 -0.426025 
62 55 36 
-0.0360107 0.0345154 -0.42627 
34 25 8 
-0.0342407 0.0345459 -0.426514 
31 24 5 
-0.0324707 0.0345764 -0.426758 
27 20 1 
-0.0307159 0.0345764 -0.427002 
63 59 34 
-0.0289307 0.0346069 -0.427246 
52 48 23 
-0.0271454 0.0346069 -0.427246 
37 30 9 
-0.0253448 0.0346069 -0.427246 
32 25 8 
-0.0235596 0.0346069 -0.42749 
28 25 11 
-0.0217743 0.0346069 -0.42749 
71 64 47 
-0.0199738 0.0346069 -0.42749 
48 41 20 
-0.0181885 0.0346375 -0.42749 
50 43 22 
-0.0164032 0.034668 -0.427979 
69 62 31 
-0.0146103 0.034668 -0.427979 
35 27 3 
-0.0128098 0.034668 -0.427979 
35 26 7 
-0.0110092 0.034668 -0.427734 
59 46 24 
-0.00920868 0.0346375 -0.427734 
41 30 7 
-0.00740814 0.0346375 -0.42749 
44 28 7 
-0.00546265 0.0337219 -0.41626 
51 35 12 
-0.00365257 0.0331421 -0.40918 
66 46 10 
-0.00193214 0.0331116 -0.408691 
88 64 23 
-0.000214458 0.0330811 -0.408447 
106 81 32 
0.00150585 0.0332031 -0.409668 
113 86 23 
0.0032177 0.0330811 -0.408447 
111 82 20 
0.00492096 0.03302 -0.407471 
124 90 28 
0.00662994 0.0329895 -0.407227 
119 87 22 
0.00832367 0.0329285 -0.406494 
123 91 26 
0.0100174 0.0328979 -0.406006 
126 95 27 
0.0117035 0.0328369 -0.405273 
127 97 20 
0.013382 0.0327759 -0.404785 
126 96 19 
0.0150604 0.0327148 -0.404053 
128 93 20 
0.0167236 0.0326843 -0.40332 
133 101 27 
0.0183868 0.0325928 -0.402588 
136 104 32 
0.02005 0.0325623 -0.402344 
139 107 33 
0.021698 0.0325012 -0.401367 
138 107 37 
0.0233459 0.0324402 -0.400879 
137 106 38 
0.0249939 0.0324097 -0.400391 
151 120 52 
0.0266266 0.0323486 -0.399658 
152 123 57 
0.0282745 0.0323181 -0.39917 
153 124 58 
0.0299072 0.0322876 -0.398682 
151 123 54 
0.0315552 0.0322571 -0.398438 
153 126 52 
0.0332031 0.0322266 -0.398193 
150 123 49 
0.0348511 0.032196 -0.397949 
149 123 51 
0.036499 0.032196 -0.397949 
148 125 50 
0.0381775 0.032196 -0.397949 
130 105 42 
0.0398254 0.032196 -0.397949 
141 114 49 
0.0414734 0.0321655 -0.397705 
124 87 26 
0.0431519 0.032196 -0.397949 
138 103 46 
0.0447998 0.032196 -0.397949 
136 111 46 
0.0465088 0.032196 -0.398193 
124 102 36 
0.0481873 0.032196 -0.398193 
127 102 37 
0.0498657 0.032196 -0.398438 
126 101 38 
0.0515442 0.0322266 -0.398438 
126 104 38 
0.0532227 0.0322266 -0.398682 
130 108 40 
0.0549011 0.0322266 -0.398926 
126 105 34 
0.0565491 0.0322266 -0.398682 
124 102 34 
0.058197 0.0322266 -0.398682 
115 95 28 
0.065979 0.0355225 -0.439697 
117 97 30 
0.067749 0.0354919 -0.439453 
108 93 42 
0.0695801 0.0354919 -0.439209 
73 76 58 
0.0713501 0.0354614 -0.439209 
55 73 71 
0.0731812 0.0354614 -0.439209 
59 77 84 
0.0747681 0.0353394 -0.437988 
60 79 83 
0.0767212 0.0354004 -0.438477 
61 80 84 
0.0785522 0.0354004 -0.438477 
62 81 83 
0.0803833 0.0354004 -0.438721 
59 81 82 
0.0822144 0.0354004 -0.438721 
58 80 81 
0.0840454 0.0354004 -0.438965 
62 84 87 
0.0858765 0.0354309 -0.439209 
57 81 83 
0.0877686 0.0354309 -0.439453 
61 85 87 
0.0895996 0.0354309 -0.439453 
61 82 88 
0.0914307 0.0354309 -0.439697 
59 80 88 
0.0932617 0.0354309 -0.439697 
58 79 87 
0.0950928 0.0354309 -0.439941 
60 81 89 
0.0969238 0.0354614 -0.440186 
61 82 88 
0.0987549 0.0354614 -0.440186 
62 84 87 
0.100586 0.0354614 -0.440186 
63 82 84 
0.102417 0.0354614 -0.440674 
63 82 82 
0.104248 0.0354614 -0.440674 
58 80 79 
0.10614 0.0354919 -0.440918 
58 82 82 
0.107971 0.0354919 -0.441162 
59 83 83 
0.109802 0.0354919 -0.441406 
60 84 84 
0.111694 0.0354919 -0.44165 
60 84 84 
0.113525 0.0354919 -0.44165 
62 84 85 
0.115295 0.0354919 -0.441895 
58 82 82 
0.117188 0.0355225 -0.442139 
58 84 84 
0.119019 0.0355225 -0.442139 
55 81 81 
0.12085 0.0355225 -0.442383 
52 83 81 
0.122681 0.0355225 -0.442627 
49 83 80 
0.124573 0.035553 -0.442871 
55 84 85 
0.126343 0.035553 -0.443115 
58 82 84 
0.128174 0.035553 -0.443115 
59 83 83 
0.130005 0.035553 -0.443359 
63 87 87 
0.131958 0.0355835 -0.443604 
54 80 78 
0.133789 0.0355835 -0.443848 
59 85 83 
0.13562 0.0355835 -0.444092 
56 82 84 
0.137329 0.035553 -0.443848 
57 83 85 
0.192749 0.046814 -0.584961 
60 84 84 
0.19519 0.0468445 -0.585938 
63 87 87 
0.195923 0.0464478 -0.581055 
83 102 104 
0.198242 0.0464478 -0.581055 
119 127 124 
0.200317 0.0463867 -0.580566 
117 123 121 
0.202759 0.0463867 -0.581055 
126 129 128 
0.205566 0.0465088 -0.58252 
117 123 125 
0.208252 0.0465698 -0.583496 
118 126 127 
0.210449 0.0465088 -0.583008 
118 124 124 
0.212891 0.0465393 -0.583496 
115 121 119 
0.21521 0.0465393 -0.583496 
122 125 124 
0.217651 0.0465393 -0.583984 
124 124 126 
0.219971 0.0465393 -0.583984 
115 121 121 
0.222168 0.0465088 -0.583984 
124 130 130 
0.224609 0.0465393 -0.584473 
118 118 120 
0.227173 0.0465698 -0.584961 
129 129 125 
0.229858 0.0466309 -0.585938 
128 129 125 
0.232178 0.0466003 -0.585938 
126 127 123 
0.234863 0.0466919 -0.587402 
128 131 130 
0.237305 0.0466919 -0.587891 
112 120 119 
0.239014 0.0465698 -0.586426 
123 135 139 
0.241577 0.0466003 -0.586914 
121 133 137 
0.243774 0.0466003 -0.586914 
120 128 127 
0.246094 0.0465698 -0.586914 
125 133 132 
0.249023 0.0466919 -0.588867 
118 126 125 
0.251465 0.0466919 -0.589355 
121 132 132 
0.253174 0.0466003 -0.587891 
117 128 128 
0.255615 0.0466309 -0.588867 
120 126 126 
0.258301 0.0466919 -0.589844 
122 133 133 
0.260498 0.0466309 -0.589355 
128 136 137 
0.262939 0.0466614 -0.589844 
119 125 127 
0.265381 0.0466614 -0.590332 
126 133 137 
0.268066 0.0467529 -0.591309 
119 125 127 
0.270264 0.0467224 -0.591309 
126 129 132 
0.272705 0.0467224 -0.591797 
114 121 125 
0.275146 0.0467529 -0.592285 
114 122 123 
0.277344 0.0467224 -0.592285 
124 132 131 
0.279541 0.0467224 -0.592285 
118 126 125 
0.282227 0.0467529 -0.593262 
121 129 128 
0.284424 0.0467224 -0.593262 
120 128 125 
0.287109 0.0467834 -0.594238 
117 124 118 
0.289307 0.0467834 -0.594727 
127 136 129 
0.291504 0.0467529 -0.594727 
120 128 125 
0.293945 0.0467529 -0.594727 
120 128 125 
0.296387 0.0467834 -0.595215 
120 128 125 
0.298828 0.0467834 -0.595703 
120 128 125 
0.301025 0.0467834 -0.596191 
120 128 125 
0.303467 0.0467834 -0.59668 
120 128 125 
0.305908 0.046814 -0.597168 
120 128 125 
0.308105 0.0467834 -0.597168 
120 128 125 
0.310303 0.0467834 -0.597168 
120 128 125 
0.313232 0.0468445 -0.598633 
120 128 125 
0.315674 0.046875 -0.599121 
120 128 125 
0.317139 0.0467529 -0.597656 
120 128 125 
0.319336 0.0467529 -0.598145 
120 128 125 
0.321533 0.0466919 -0.598145 
120 128 125 
0.323486 0.0466614 -0.598145 
120 128 125 
0.326172 0.0466919 -0.598633 
120 128 125 
0.328857 0.0467529 -0.599609 
120 128 125 
0.331299 0.0467834 -0.600098 
120 128 125 
0.333496 0.0467529 -0.600098 
120 128 125 
0.335693 0.0467529 -0.600586 
120 128 125 
0.338135 0.0467834 -0.601074 
120 128 125 
0.340576 0.0467834 -0.601563 
120 128 125 
0.343018 0.046814 -0.602539 
120 128 125 
0.345459 0.0468445 -0.603027 
120 128 125 
0.3479 0.046814 -0.603516 
120 128 125 
0.350098 0.046814 -0.603516 
120 128 125 
0.352295 0.0467834 -0.604004 
120 128 125 
0.354248 0.0467529 -0.603516 
120 128 125 
0.355713 0.0466614 -0.603027 
120 128 125 
0.358154 0.0466614 -0.603027 
120 128 125 
0.359863 0.0466003 -0.603027 
120 128 125 
0.362305 0.0466003 -0.603516 
120 128 125 
0.364258 0.0465698 -0.603027 
120 128 125 
0.366455 0.0465393 -0.603516 
120 128 125 
0.368164 0.0464783 -0.603027 
120 128 125 
0.370117 0.0464478 -0.603027 
120 128 125 
0.372559 0.0464478 -0.603516 
120 128 125 
0.374756 0.0464478 -0.604004 
120 128 125 
0.377686 0.0465393 -0.60498 
119 130 126 
0.395508 0.0484314 -0.630371 
119 130 126 
-0.288086 0.0395813 -0.532715 
136 136 132 
-0.286133 0.0396118 -0.532227 
141 141 137 
-0.28418 0.0396118 -0.532227 
137 137 133 
-0.282227 0.0396423 -0.532227 
136 137 133 
-0.280273 0.0396423 -0.532227 
131 135 130 
-0.27832 0.0396729 -0.532227 
133 136 135 
-0.276367 0.0396729 -0.531738 
133 136 137 
-0.274658 0.0397339 -0.532227 
130 130 132 
-0.272705 0.0397644 -0.532227 
133 134 128 
-0.270752 0.0397949 -0.532715 
134 134 128 
-0.268799 0.0398254 -0.532715 
131 132 128 
-0.266846 0.0398254 -0.532715 
126 127 123 
-0.264893 0.039856 -0.532715 
131 138 132 
-0.262939 0.0398865 -0.532715 
125 131 129 
-0.261475 0.0399475 -0.533691 
133 136 135 
-0.259521 0.039978 -0.533691 
130 131 127 
-0.257568 0.0400085 -0.533691 
130 134 129 
-0.255615 0.0400391 -0.533691 
124 128 123 
-0.253662 0.0400696 -0.53418 
126 130 125 
-0.251709 0.0401001 -0.53418 
126 127 121 
-0.249756 0.0401306 -0.53418 
129 130 121 
-0.247803 0.0401306 -0.53418 
129 130 117 
-0.24585 0.0401611 -0.534668 
125 126 113 
-0.243896 0.0401917 -0.534668 
126 128 117 
-0.241943 0.0402222 -0.535156 
116 117 111 
-0.240112 0.0402832 -0.535156 
126 127 121 
-0.238159 0.0403137 -0.535645 
125 125 119 
-0.236206 0.0403442 -0.535645 
123 127 122 
-0.234253 0.0403748 -0.535645 
127 131 126 
-0.2323 0.0404053 -0.536133 
123 127 122 
-0.230225 0.0404358 -0.536133 
126 127 121 
-0.228394 0.0404663 -0.536621 
125 126 120 
-0.226563 0.0405273 -0.537109 
123 124 115 
-0.224487 0.0405579 -0.537109 
94 99 104 
-0.222534 0.0405884 -0.537598 
79 93 97 
-0.220215 0.0405579 -0.537109 
69 86 89 
-0.166016 0.031189 -0.412598 
63 89 89 
-0.164673 0.03125 -0.413086 
64 90 90 
-0.163208 0.0312805 -0.413574 
61 90 87 
-0.161621 0.031311 -0.413818 
62 88 88 
-0.160034 0.0313416 -0.414063 
62 91 90 
-0.158447 0.0313416 -0.414063 
63 92 91 
-0.15686 0.0313721 -0.414307 
60 89 90 
-0.155396 0.0314026 -0.414551 
64 89 94 
-0.153809 0.0314331 -0.414551 
63 89 91 
-0.152222 0.0314331 -0.414795 
65 89 89 
-0.150757 0.0314636 -0.415039 
65 89 89 
-0.14917 0.0314941 -0.415283 
62 88 88 
-0.147461 0.0314941 -0.415283 
62 88 88 
-0.145874 0.0315247 -0.415527 
63 89 91 
-0.144287 0.0315552 -0.415771 
61 87 89 
-0.1427 0.0315857 -0.415771 
65 89 91 
-0.141113 0.0316162 -0.416016 
67 89 90 
-0.139648 0.0316467 -0.41626 
65 87 86 
-0.137939 0.0316467 -0.416504 
65 87 86 
-0.136353 0.0316772 -0.416748 
67 86 86 
-0.134766 0.0317078 -0.416992 
66 85 85 
-0.133179 0.0317383 -0.417236 
67 86 86 
-0.131592 0.0317688 -0.41748 
64 86 87 
-0.130005 0.0317993 -0.417725 
63 87 87 
-0.128418 0.0318298 -0.417969 
64 88 90 
-0.126709 0.0318298 -0.418213 
67 89 92 
-0.125122 0.0318604 -0.418457 
64 86 87 
-0.123535 0.0318909 -0.418701 
64 86 87 
-0.121887 0.0319214 -0.418701 
66 88 89 
-0.1203 0.0319519 -0.418945 
67 86 88 
-0.118652 0.0319519 -0.419189 
66 85 87 
-0.117004 0.0319824 -0.419434 
66 85 87 
-0.115356 0.0320129 -0.419678 
68 87 89 
-0.113647 0.0320129 -0.419678 
66 85 87 
-0.112 0.0320435 -0.419922 
66 88 91 
-0.110352 0.032074 -0.419922 
64 86 89 
-0.108704 0.032074 -0.420166 
62 83 89 
-0.106995 0.0321045 -0.42041 
59 80 86 
-0.105286 0.0321045 -0.42041 
57 79 80 
-0.103638 0.032135 -0.420654 
59 78 78 
-0.10199 0.0321655 -0.420898 
61 78 79 
-0.100281 0.0321655 -0.420898 
59 76 77 
-0.0985718 0.032196 -0.421143 
62 76 78 
-0.0968628 0.032196 -0.421143 
59 74 73 
-0.0952148 0.0322266 -0.421387 
57 70 69 
-0.0935059 0.0322571 -0.421631 
55 70 69 
-0.0878296 0.0308838 -0.403564 
96 92 56 
-0.0858154 0.0307617 -0.401855 
122 107 54 
-0.0841064 0.0307465 -0.401611 
132 113 55 
-0.0823975 0.0307465 -0.401611 
134 116 55 
-0.0806885 0.0307159 -0.401123 
139 118 58 
-0.0789795 0.0307007 -0.400879 
138 117 57 
-0.0772705 0.0306854 -0.400635 
137 116 54 
-0.0755615 0.0306854 -0.400635 
137 110 45 
-0.0739136 0.0306854 -0.400635 
139 112 45 
-0.0722656 0.0307007 -0.400635 
139 113 43 
-0.0706177 0.0307159 -0.400879 
135 111 41 
-0.0690308 0.0307312 -0.401123 
132 107 40 
-0.0674438 0.030777 -0.401367 
128 103 36 
-0.0657959 0.0308075 -0.401855 
118 91 24 
-0.064209 0.030838 -0.4021 
116 87 21 
-0.0626221 0.0308838 -0.402588 
111 84 19 
-0.0610352 0.0309143 -0.403076 
110 83 18 
-0.0594177 0.0309601 -0.403564 
110 83 18 
-0.0578308 0.0310211 -0.404297 
109 82 17 
-0.0562134 0.0310516 -0.404785 
108 83 18 
-0.0545959 0.0311127 -0.405518 
102 77 14 
-0.0529785 0.0311432 -0.405762 
100 74 14 
-0.0518188 0.0314636 -0.410156 
87 65 12 
-0.0504456 0.0316772 -0.412842 
60 37 5 
-0.0492554 0.0320435 -0.41748 
48 25 4 
-0.0481567 0.0324707 -0.42334 
35 16 1 
-0.0464478 0.0325012 -0.423584 
37 23 6 
-0.0447083 0.0325317 -0.424072 
32 23 4 
-0.0429688 0.0325928 -0.424561 
29 23 8 
-0.0412292 0.0326233 -0.424805 
27 24 10 
-0.0394897 0.0326538 -0.425293 
41 38 24 
-0.0377502 0.0326843 -0.425781 
42 39 23 
-0.0359802 0.0327148 -0.426025 
33 27 14 
-0.0342407 0.0327454 -0.42627 
30 27 11 
-0.0324707 0.0327454 -0.426514 
48 45 29 
-0.0307007 0.0327759 -0.426758 
66 61 43 
-0.0289154 0.0327759 -0.426758 
61 59 40 
-0.0271301 0.0328064 -0.427002 
60 60 36 
-0.0253296 0.0328064 -0.427002 
40 35 15 
-0.0235443 0.0328064 -0.427002 
37 30 20 
-0.021759 0.0328064 -0.427246 
76 75 58 
-0.0199738 0.0328064 -0.427246 
58 55 39 
-0.0181732 0.0328369 -0.42749 
77 80 59 
-0.0163879 0.0328369 -0.427734 
64 58 45 
-0.014595 0.0328369 -0.427734 
36 30 15 
-0.0128098 0.0328674 -0.427979 
35 30 12 
-0.0110092 0.0328674 -0.427734 
83 74 53 
-0.00920868 0.0328369 -0.427734 
33 26 9 
-0.00741196 0.0328369 -0.427734 
33 26 7 
-0.00561142 0.0328369 -0.42749 
31 25 1 
-0.00377083 0.0324402 -0.422363 
33 27 3 
-0.00197983 0.032196 -0.418945 
59 44 18 
-0.000217915 0.0319519 -0.416016 
82 64 32 
0.0015049 0.0314331 -0.40918 
89 64 26 
0.0032196 0.0314026 -0.408691 
104 76 28 
0.00493622 0.0313721 -0.408447 
111 82 29 
0.00663376 0.031311 -0.407471 
116 87 25 
0.0083313 0.03125 -0.406982 
119 90 24 
0.0100327 0.0312195 -0.406494 
118 90 21 
0.0117188 0.0311737 -0.405762 
125 93 21 
0.0134048 0.0311279 -0.405273 
122 90 18 
0.0150833 0.0310669 -0.404541 
127 94 25 
0.0167542 0.0310211 -0.403809 
132 100 26 
0.0184174 0.0309906 -0.40332 
133 101 27 
0.02005 0.0308838 -0.4021 
138 106 32 
0.0217133 0.030838 -0.401611 
137 106 36 
0.0233459 0.0307922 -0.400879 
127 95 30 
0.0249939 0.0307312 -0.400391 
149 115 51 
0.0266266 0.0306702 -0.399414 
149 122 57 
0.0282593 0.0306396 -0.398926 
150 123 56 
0.0299072 0.0306091 -0.398682 
151 123 52 
0.0315247 0.0305786 -0.398193 
151 124 50 
0.0331726 0.0305328 -0.397705 
150 123 49 
0.0348206 0.0305176 -0.397705 
151 124 50 
0.0364685 0.0305023 -0.397461 
151 125 53 
0.0381165 0.0305023 -0.397461 
143 118 53 
0.0397644 0.0304871 -0.397217 
144 119 54 
0.0414429 0.0304871 -0.397217 
125 93 28 
0.0430908 0.0304718 -0.397217 
141 114 61 
0.0447388 0.0304718 -0.397217 
141 113 55 
0.0464478 0.0304871 -0.397461 
131 104 41 
0.0480957 0.0304871 -0.397461 
125 98 31 
0.0497742 0.0304871 -0.397705 
125 100 37 
0.0514221 0.0305023 -0.397705 
130 105 40 
0.0531311 0.0305176 -0.398193 
133 108 41 
0.0548096 0.0305328 -0.398193 
126 106 37 
0.056488 0.0305328 -0.398438 
127 107 38 
0.058136 0.0305176 -0.398193 
120 101 29 
0.0597534 0.0305023 -0.398193 
117 97 28 
0.067749 0.0336304 -0.439209 
117 97 28 
0.069519 0.0335999 -0.438721 
106 89 32 
0.0712891 0.0335999 -0.438721 
76 76 52 
0.0731201 0.0335999 -0.438721 
59 75 83 
0.074707 0.0334778 -0.4375 
53 74 82 
0.0766602 0.0335388 -0.438232 
54 75 83 
0.0784302 0.0335083 -0.437988 
56 79 86 
0.0802612 0.0335083 -0.437988 
57 80 85 
0.0820313 0.0335083 -0.437988 
58 81 86 
0.0838623 0.0335083 -0.437988 
58 81 86 
0.0856934 0.0335083 -0.437988 
58 82 84 
0.0875854 0.0335083 -0.438477 
59 83 85 
0.0893555 0.0335388 -0.438477 
60 83 88 
0.0911865 0.0335388 -0.438721 
59 82 87 
0.0930176 0.0335388 -0.438721 
59 82 87 
0.0949097 0.0335388 -0.438965 
57 80 85 
0.0967407 0.0335693 -0.439209 
61 85 87 
0.0986328 0.0335693 -0.439453 
60 84 86 
0.100464 0.0335693 -0.439697 
59 81 84 
0.102234 0.0335693 -0.439697 
56 80 80 
0.104065 0.0335693 -0.439697 
59 83 83 
0.105896 0.0335693 -0.439941 
60 84 86 
0.107788 0.0335999 -0.440186 
59 83 85 
0.109619 0.0335999 -0.44043 
58 81 86 
0.11145 0.0335999 -0.440674 
58 81 86 
0.11322 0.0335999 -0.440674 
64 83 85 
0.115112 0.0335999 -0.440918 
63 82 84 
0.116943 0.0335999 -0.441162 
62 81 83 
0.118774 0.0336304 -0.441406 
59 81 82 
0.120605 0.0336304 -0.441406 
61 85 85 
0.122437 0.0336304 -0.44165 
58 84 84 
0.124268 0.0336304 -0.441895 
56 82 82 
0.126099 0.0336609 -0.442139 
55 81 81 
0.12793 0.0336609 -0.442383 
59 83 85 
0.129761 0.0336609 -0.442627 
60 84 86 
0.131592 0.0336609 -0.442871 
53 79 79 
0.133545 0.0336914 -0.443115 
56 85 84 
0.135376 0.0336914 -0.443115 
56 82 82 
0.137085 0.0336914 -0.443359 
57 83 83 
0.190796 0.0439453 -0.579102 
59 85 85 
0.193359 0.0440063 -0.580078 
58 84 84 
0.19519 0.0438843 -0.578613 
82 104 107 
0.197754 0.0439453 -0.57959 
113 126 123 
0.200195 0.0439453 -0.580078 
111 122 120 
0.202637 0.0439758 -0.580566 
120 128 127 
0.204712 0.0439148 -0.580078 
117 125 126 
0.206909 0.0438843 -0.57959 
116 124 125 
0.209473 0.0439148 -0.580566 
119 125 127 
0.212158 0.0440063 -0.581543 
123 123 125 
0.214233 0.0439453 -0.581055 
124 127 126 
0.216919 0.0440063 -0.582031 
117 123 125 
0.218994 0.0439453 -0.581543 
119 127 128 
0.221558 0.0440063 -0.58252 
121 129 130 
0.224487 0.0440979 -0.583984 
113 118 123 
0.227051 0.0441589 -0.584961 
119 122 125 
0.22876 0.0440369 -0.583496 
121 124 123 
0.232178 0.0442505 -0.586426 
124 127 128 
0.234741 0.0442505 -0.586914 
126 132 132 
0.237183 0.044281 -0.587402 
117 128 126 
0.23877 0.0441284 -0.585938 
121 133 135 
0.241577 0.04422 -0.586914 
120 132 136 
0.24353 0.0441284 -0.586426 
117 129 131 
0.245728 0.0441284 -0.586426 
120 133 132 
0.248657 0.0442505 -0.587891 
117 128 124 
0.250977 0.0442505 -0.588379 
121 133 135 
0.25293 0.0441589 -0.587402 
114 128 132 
0.255371 0.0441895 -0.587891 
121 128 134 
0.257568 0.0441284 -0.587402 
124 131 135 
0.259277 0.0440674 -0.586914 
125 132 136 
0.261719 0.0440674 -0.587402 
117 124 128 
0.265137 0.04422 -0.589844 
124 132 133 
0.266846 0.0441284 -0.588379 
121 129 130 
0.269287 0.0441284 -0.588867 
123 134 132 
0.271484 0.0441589 -0.589355 
118 131 128 
0.273926 0.0441589 -0.589844 
113 125 127 
0.276611 0.04422 -0.59082 
122 135 134 
0.279297 0.044281 -0.591797 
113 126 123 
0.281982 0.0443115 -0.592773 
115 130 127 
0.284424 0.044342 -0.593262 
119 134 133 
0.286133 0.0442505 -0.592285 
114 123 116 
0.288574 0.0442505 -0.592773 
118 131 128 
0.291504 0.044342 -0.594238 
117 125 124 
0.293701 0.044342 -0.594727 
118 126 125 
0.296143 0.0443726 -0.595215 
118 126 125 
0.298584 0.044342 -0.595215 
118 126 125 
0.300781 0.0443726 -0.595703 
118 126 125 
0.303223 0.044342 -0.595703 
118 126 125 
0.305176 0.0443115 -0.595703 
118 126 125 
0.307861 0.044342 -0.59668 
118 126 125 
0.309814 0.0443115 -0.596191 
118 126 125 
0.312012 0.0443115 -0.596191 
118 126 125 
0.313965 0.04422 -0.595703 
118 126 125 
0.31665 0.044281 -0.59668 
118 126 125 
0.319092 0.0443115 -0.597656 
118 126 125 
0.321289 0.044281 -0.597168 
118 126 125 
0.32373 0.0443115 -0.598145 
118 126 125 
0.325928 0.044281 -0.598145 
118 126 125 
0.328369 0.0443115 -0.598633 
118 126 125 
0.330566 0.044281 -0.599121 
118 126 125 
0.333008 0.0443115 -0.599609 
118 126 125 
0.335449 0.044342 -0.600098 
118 126 125 
0.337891 0.044342 -0.600586 
118 126 125 
0.340332 0.044342 -0.601074 
118 126 125 
0.343018 0.0444031 -0.602051 
118 126 125 
0.345459 0.0444336 -0.603027 
118 126 125 
0.347656 0.0444031 -0.603027 
118 126 125 
0.349854 0.0444031 -0.603516 
118 126 125 
0.352295 0.0444031 -0.604004 
118 126 125 
0.353516 0.044281 -0.602539 
118 126 125 
0.355469 0.04422 -0.602051 
118 126 125 
0.35791 0.0442505 -0.602539 
118 126 125 
0.359619 0.0441895 -0.602051 
118 126 125 
0.362061 0.0441895 -0.603027 
118 126 125 
0.36377 0.0441284 -0.602539 
118 126 125 
0.365967 0.0440979 -0.602539 
118 126 125 
0.36792 0.0440674 -0.602539 
118 126 125 
0.369873 0.0440369 -0.602539 
118 126 125 
0.37207 0.0440369 -0.602539 
118 126 125 
0.374268 0.0440369 -0.603027 
118 126 125 
0.376709 0.0440674 -0.603516 
118 126 125 
0.395508 0.0459595 -0.630371 
118 126 125 
-0.287598 0.037384 -0.53125 
140 144 139 
-0.285645 0.0374146 -0.53125 
135 138 137 
-0.283691 0.0374146 -0.53125 
135 138 141 
-0.281738 0.0374451 -0.53125 
137 137 141 
-0.279785 0.0374451 -0.53125 
136 136 138 
-0.278076 0.0374756 -0.53125 
133 134 130 
-0.275879 0.0374756 -0.53125 
137 137 131 
-0.273926 0.0375061 -0.53125 
126 126 128 
-0.272217 0.0375366 -0.53125 
136 136 136 
-0.270264 0.0375671 -0.531738 
130 131 127 
-0.268311 0.0375977 -0.531738 
140 137 134 
-0.266602 0.0376282 -0.531738 
134 134 130 
-0.264648 0.0376587 -0.532227 
132 133 129 
-0.262695 0.0376892 -0.532227 
130 130 130 
-0.260986 0.0377197 -0.532715 
130 130 132 
-0.259033 0.0377502 -0.532715 
129 132 133 
-0.25708 0.0377808 -0.532715 
128 131 132 
-0.255127 0.0378113 -0.532715 
126 129 130 
-0.253174 0.0378113 -0.533203 
123 123 123 
-0.251221 0.0378723 -0.533203 
134 134 128 
-0.24939 0.0378723 -0.533203 
129 126 121 
-0.247437 0.0379028 -0.533203 
133 131 123 
-0.245483 0.0379333 -0.533691 
130 131 120 
-0.24353 0.0379639 -0.533691 
127 128 117 
-0.241577 0.0379944 -0.533691 
122 124 115 
-0.239624 0.0380249 -0.53418 
122 123 117 
-0.237671 0.0380554 -0.53418 
129 130 124 
-0.235718 0.0380859 -0.534668 
128 132 125 
-0.233887 0.0381165 -0.535156 
120 124 117 
-0.231689 0.0381165 -0.534668 
122 126 119 
-0.229736 0.038147 -0.535156 
127 131 124 
-0.227783 0.0381775 -0.535156 
123 127 120 
-0.225952 0.0382385 -0.535645 
124 125 116 
-0.224121 0.038269 -0.536133 
87 98 98 
-0.22229 0.0383301 -0.536621 
78 93 92 
-0.220093 0.0383301 -0.536621 
74 89 88 
-0.167603 0.0294952 -0.412598 
68 87 87 
-0.165771 0.0294495 -0.411865 
67 89 90 
